-13.403690 -37.697216 100.256412 179 162 136
-13.404645 -37.696300 100.089408 185 167 143
-13.405599 -37.695383 99.922356 190 172 148
-13.487275 -38.300075 99.824346 191 173 151
-13.488238 -38.299248 99.657769 192 174 152
-13.570397 -38.899610 99.394826 191 173 151
-13.491130 -38.296765 99.157751 195 178 158
-13.412289 -37.688962 98.751643 196 181 160
-13.258585 -37.784744 98.592385 195 180 159
-13.177682 -37.173888 98.350840 194 179 158
-13.260454 -37.782935 98.257494 194 179 160
-13.261389 -37.782030 98.089976 196 179 161
-13.344608 -38.386627 97.830741 193 177 161
-13.109563 -37.876379 97.595735 194 177 159
-13.110477 -37.875487 97.428089 194 176 154
-13.111390 -37.874594 97.260394 192 172 148
-13.112304 -37.873701 97.092651 187 165 141
-13.195136 -38.479386 97.003661 193 169 143
-12.959552 -37.969333 96.765986 191 165 138
-12.960444 -37.968454 96.598163 183 158 128
-12.961336 -37.967574 96.430291 178 153 123
-12.962229 -37.966694 96.262371 173 148 118
-12.963122 -37.965814 96.094402 172 148 120
-13.200678 -38.474562 95.999359 176 155 126
-13.283057 -39.077083 95.914122 184 163 136
-13.203453 -38.472146 95.496558 189 169 142
-13.204378 -38.471341 95.328861 190 173 145
-13.440711 -38.977500 95.236208 190 173 143
-13.441668 -38.976769 95.068927 191 174 144
-13.442625 -38.976038 94.901597 192 175 145
-13.524054 -39.575680 94.820042 192 175 145
-13.679658 -39.478162 94.476510 192 175 147
-13.680647 -39.477505 94.309498 193 176 148
-13.681636 -39.476847 94.142438 194 177 151
-13.916506 -39.977150 93.886935 194 177 151
-13.917526 -39.976566 93.720240 196 178 154
-13.918547 -39.975981 93.553497 197 179 157
-13.919568 -39.975396 93.386706 199 181 159
-13.921611 -39.974225 93.052981 199 181 161
-14.001145 -40.567993 92.977657 192 174 152
-14.002175 -40.567493 92.811246 188 170 148
-14.081235 -41.157756 92.736952 189 168 147
-14.082273 -41.157342 92.571014 191 170 149
-14.083311 -41.156927 92.405028 191 170 149
-14.085389 -41.156097 92.072916 193 173 149
-14.086429 -41.155682 91.906789 199 179 155
-14.009392 -40.563993 91.645041 197 177 153
-14.010425 -40.563492 91.478250 198 176 153
-13.854793 -39.368073 90.948090 186 161 139
-13.855811 -39.367398 90.780005 169 144 122
-13.777205 -38.763585 90.511543 145 120 98
-13.462410 -37.640853 89.980459 145 124 103
-13.381640 -37.025016 89.706447 146 127 110
-13.382603 -37.023991 89.535829 151 135 119
-13.383567 -37.022966 89.365161 153 137 122
-13.385494 -37.020914 89.023675 150 136 123
-13.386458 -37.019888 88.852858 148 134 121
-13.305097 -36.399392 88.573678 148 135 119
-13.388387 -37.017835 88.511074 147 134 118
-13.389352 -37.016808 88.340107 149 134 115
-13.150828 -36.494159 88.071199 147 130 110
-13.151761 -36.493052 87.899598 144 127 107
-13.069240 -35.868240 87.615930 144 127 107
-13.071091 -35.865834 87.271262 143 126 106
-13.072016 -35.864630 87.098852 144 126 106
-13.072942 -35.863426 86.926392 146 128 108
-13.073868 -35.862222 86.753880 149 131 111
-13.074795 -35.861018 86.581318 152 134 114
-13.160175 -36.483074 86.352920 159 137 116
-13.161111 -36.481964 86.180815 165 143 122
-13.162047 -36.480853 86.008660 170 145 125
-13.245993 -37.100427 85.954388 166 139 118
-13.246939 -37.099410 85.782738 168 141 120
-13.248832 -37.097374 85.439288 168 141 120
-13.249779 -37.096356 85.267487 167 140 119
-13.250726 -37.095338 85.095637 160 133 112
-13.251673 -37.094319 84.923736 155 130 108
-13.252620 -37.093300 84.751784 152 127 105
-13.086862 -35.845327 84.333389 157 135 114
-13.255465 -37.090241 84.235629 152 125 104
-13.256413 -37.089221 84.063477 150 123 102
-13.174246 -36.466385 83.766041 151 124 103
-13.091516 -35.839276 83.466508 153 128 108
-13.416487 -36.987929 83.532713 152 125 104
-13.417460 -36.986893 83.360291 153 125 104
-13.419407 -36.984820 83.015296 154 126 105
-13.179892 -36.459689 82.728097 157 126 105
-13.181777 -36.457454 82.381709 158 127 106
-13.182719 -36.456336 82.208438 158 127 106
-13.183662 -36.455218 82.035117 158 127 106
-12.942477 -35.926383 81.743670 156 128 106
-12.944298 -35.923982 81.395673 153 127 104
-13.029549 -36.549727 81.356247 146 118 96
-12.702368 -35.390284 80.926453 150 124 101
-12.788717 -36.019980 80.888464 144 116 94
-12.790494 -36.017605 80.540090 143 115 93
-12.791382 -36.016417 80.365826 139 113 90
-12.547969 -35.484114 80.067831 135 109 86
-12.548825 -35.482844 79.892908 132 108 84
-12.549681 -35.481572 79.717934 129 107 83
-12.550537 -35.480301 79.542908 125 103 80
-12.305445 -34.944297 79.241146 121 99 76
-12.466413 -34.840642 78.873612 128 106 82
-12.957078 -35.907138 78.953925 127 107 82
-13.200680 -36.435034 78.906593 127 107 82
-13.442863 -36.959855 78.859537 125 105 80
-14.082805 -39.223400 79.048630 134 117 99
-14.318715 -39.732001 79.001855 134 116 96
-14.785346 -40.740982 79.079192 129 108 89
-15.017214 -41.240861 79.032735 123 102 85
-15.402247 -41.643956 78.971235 157 136 119
-15.631155 -42.138716 78.925346 147 128 113
-15.786734 -42.045275 78.741358 158 139 124
-16.168164 -42.445459 78.681099 152 136 121
-16.955882 -46.265765 79.435958 129 114 95
-17.390278 -47.200154 79.507908 139 123 107
-17.606396 -47.663666 79.461968 146 130 114
-18.033559 -48.582505 79.533175 154 138 122
-18.455982 -49.491150 79.603593 159 143 127
-18.666252 -49.942103 79.558027 161 145 129
-18.667872 -49.942903 79.397030 163 147 131
-18.669494 -49.943703 79.235989 161 145 129
-18.878680 -50.392347 79.191523 158 142 127
-18.880326 -50.393207 79.030866 155 139 126
-18.763354 -49.322713 78.605167 157 141 128
-18.766637 -49.324152 78.281505 155 139 126
-18.827775 -49.862378 78.254109 152 136 123
-19.095095 -50.843173 78.345700 147 133 120
-19.300467 -51.286331 78.463809 146 132 119
-19.302162 -51.287307 78.303827 145 133 119
-19.156405 -51.373304 78.158455 145 133 119
-19.098440 -50.845010 78.024757 145 133 119
-19.100112 -50.845929 77.864221 145 133 119
-18.895158 -50.400950 77.582981 143 133 121
-18.776495 -49.328472 77.309456 144 132 118
-18.688984 -49.953323 77.300067 143 133 121
-18.690611 -49.954126 77.138453 145 135 123
-18.422330 -48.962857 76.713767 147 137 125
-18.632236 -49.417074 76.838045 149 139 127
-18.901762 -50.404398 76.938337 148 139 124
-19.108483 -50.850529 77.060883 148 139 124
-19.315738 -51.295125 77.022410 149 137 123
-19.111834 -50.852371 76.739243 146 134 120
-19.874033 -52.093245 76.931182 143 131 115
-20.478058 -53.397669 77.134869 142 130 114
-17.367831 -46.655510 74.593413 139 127 111
-17.497984 -47.766607 74.889980 136 124 108
-17.219411 -46.745981 74.278814 128 116 100
-17.219411 -46.745981 74.278814 126 114 98
-17.285196 -47.303158 74.428635 134 121 104
-13.918160 -39.984150 68.010897 125 112 95
-14.232073 -39.788753 67.970675 111 98 79
-14.389280 -39.691476 67.950699 102 85 67
-14.153527 -39.176557 67.616158 94 77 59
-14.313380 -40.395194 67.801858 99 82 64
-13.406947 -32.073090 65.349652 93 77 61
-13.492042 -32.731428 65.544321 103 87 71
-13.493063 -32.729711 65.362786 114 97 81
-13.741725 -33.282130 65.355168 116 99 83
-13.742782 -33.280502 65.174122 108 92 76
-13.742782 -33.280502 65.174122 96 83 67
-9.571464 -2.366040 55.933042 86 79 60
-9.343303 -0.589278 55.189829 81 78 61
-9.228060 0.313839 54.705687 79 80 64
-9.536318 -0.466782 54.951078 81 84 67
-9.536815 -0.459032 54.735920 81 85 70
-9.537312 -0.451280 54.520685 80 87 71
-9.228947 0.329679 54.273590 84 87 76
-9.537809 -0.443524 54.305374 42 43 38
-9.989854 -3.945372 54.948839 0 0 0
-9.424769 0.484652 53.167589 3 3 1
-14.029494 -27.993566 55.800100 61 53 32
-14.284313 -28.578787 55.822217 68 57 35
-14.286661 -28.573969 55.445898 69 59 34
-14.539976 -29.155767 55.469049 69 59 34
-15.033869 -31.746878 56.185278 70 64 42
-15.280639 -32.309030 56.205705 71 65 43
-15.290603 -30.879760 55.537651 74 64 39
-15.615596 -32.110447 55.790440 75 67 44
-15.923137 -34.716865 56.513908 71 69 48
-15.848739 -34.069863 56.106500 75 70 48
-15.773817 -33.418305 55.696163 79 73 51
-15.543153 -31.439671 54.818482 83 73 48
-15.699731 -32.760423 55.098670 83 77 53
-15.457326 -32.196931 54.705190 85 79 55
-15.214589 -31.627744 54.123450 87 81 57
-14.968873 -31.056538 53.723962 90 84 60
-14.721492 -30.481464 53.321767 93 85 64
-14.722725 -30.479368 53.134716 101 93 74
-14.473628 -29.900289 52.729089 108 100 81
-14.392823 -29.214342 52.107118 126 117 100
-14.225160 -29.312675 51.943612 128 121 103
-14.057617 -29.411364 51.780321 123 117 101
-13.719351 -28.131709 50.925507 140 133 117
-13.375111 -26.836154 50.249820 143 137 123
-13.205365 -26.936729 50.084556 142 136 122
-12.946677 -26.330211 49.467405 140 132 119
-13.215982 -28.427329 50.053500 126 117 100
-13.216995 -28.424880 49.863311 128 116 100
-13.039713 -27.026924 49.152954 129 117 101
-13.040707 -27.024235 48.961162 126 113 96
-13.041700 -27.021546 48.769310 126 111 92
-13.133189 -27.716842 48.649369 124 107 87
-13.223081 -28.410170 48.720924 127 110 90
-13.134194 -27.714270 48.458081 125 110 91
-13.045677 -27.010780 48.001294 123 108 89
-13.045677 -27.010780 48.001294 121 108 91
-13.136205 -27.709124 48.075324 125 113 97
-13.226128 -28.402805 48.148921 135 126 111
-13.226128 -28.402805 48.148921 143 133 123
-13.315452 -29.091871 48.222092 158 152 140
-13.403147 -29.778593 48.484217 165 158 148
-13.316479 -29.089531 48.031982 169 165 156
-13.317506 -29.087189 47.841812 170 166 157
-13.317506 -29.087189 47.841812 162 159 150
-13.406258 -29.771915 47.915906 158 154 145
-13.662396 -30.349797 47.962148 149 145 136
-13.401053 -28.287235 47.166722 129 127 115
-13.489829 -28.977188 47.243287 129 127 115
-13.659249 -28.874540 47.215764 130 128 115
-12.884634 -27.088120 46.105185 129 126 111
-11.205626 2.412501 175.866701 76 18 7
-11.205626 2.412501 175.866701 77 19 8
-11.402478 0.758558 175.449886 81 19 8
-11.402478 0.758558 175.449886 82 20 7
-11.402478 0.758558 175.449886 84 20 8
-11.500626 -0.052359 175.065690 87 21 7
-11.224649 0.675684 175.076342 88 20 9
-11.502966 -0.030805 174.531269 89 21 10
-11.406312 0.795286 174.556005 91 18 9
-11.779552 -0.732899 173.989586 89 23 11
-11.780376 -0.725846 173.811795 89 23 9
-11.781199 -0.718792 173.633946 90 24 10
-12.148484 -2.233120 173.254389 92 24 11
-12.150239 -2.219595 172.900928 92 23 8
-12.151117 -2.212829 172.724111 94 22 8
-12.151117 -2.212829 172.724111 94 20 7
-12.151995 -2.206061 172.547237 95 19 6
-12.245439 -3.003490 172.354240 95 17 5
-12.246329 -2.996874 172.177931 95 17 5
-12.248111 -2.983634 171.825142 95 17 5
-12.248111 -2.983634 171.825142 96 18 6
-12.341835 -3.769432 171.459501 99 17 6
-12.341835 -3.769432 171.459501 100 16 6
-12.342738 -3.762959 171.283584 102 15 6
-12.343641 -3.756483 171.107611 102 15 6
-12.703287 -5.224320 170.575715 102 15 6
-12.438591 -4.524651 170.394602 101 17 7
-12.439507 -4.518317 170.219019 101 17 7
-12.797431 -5.976664 169.694778 101 17 6
-12.708066 -5.193308 169.700625 101 17 6
-12.342144 -2.015274 170.079503 101 17 7
-12.070915 -1.298833 170.072134 102 18 8
-12.071786 -1.291873 169.893704 102 18 7
-12.166970 -2.090669 169.531562 101 19 7
-12.166970 -2.090669 169.531562 99 20 7
-12.804208 -5.934204 168.471971 100 18 6
-12.805177 -5.928131 168.297061 99 20 5
-12.806147 -5.922055 168.122095 101 19 5
-12.897898 -6.683235 167.598973 105 19 6
-12.718606 -5.124908 167.770480 106 18 8
-12.810029 -5.897734 167.421670 107 17 6
-12.900843 -6.665421 167.075237 107 17 6
-12.901825 -6.659479 166.900547 109 17 4
-12.638074 -5.974368 166.881979 110 16 4
-12.639962 -5.962217 166.531193 111 18 3
-12.731456 -6.730412 166.187618 110 18 5
-12.550654 -5.170198 166.348842 112 16 2
-12.642796 -5.943977 166.004592 109 17 2
-12.643741 -5.937892 165.828946 109 17 4
-12.735280 -6.706661 165.487606 106 20 7
-12.827179 -7.464524 164.974005 105 23 11
-12.917519 -8.223274 164.637843 104 24 13
-12.745421 -8.312400 164.450504 103 25 13
-12.289826 -4.429698 165.089119 110 28 14
-12.290723 -4.423319 164.911881 106 30 16
-12.292516 -4.410557 164.557232 103 31 17
-12.293413 -4.404172 164.379821 99 30 15
-12.386963 -5.184861 164.040659 95 29 15
-12.930429 -9.787903 162.920704 91 28 19
-12.931404 -9.782522 162.747435 90 27 18
-12.932379 -9.777138 162.574112 92 28 18
-12.933355 -9.771753 162.400734 94 27 18
-12.934331 -9.766367 162.227301 97 27 17
-12.763333 -9.855887 162.041133 103 25 15
-12.765231 -9.845137 161.694096 105 23 12
-12.766181 -9.839760 161.520495 106 22 12
-12.767131 -9.834381 161.346839 107 20 10
-12.768081 -9.829000 161.173129 108 20 8
-12.315548 -5.983264 161.571694 97 25 11
-12.316444 -5.977164 161.394734 97 25 11
-12.317340 -5.971063 161.217718 96 27 12
-12.410432 -6.743149 160.891199 97 25 11
-12.411340 -6.737190 160.714695 97 23 10
-12.412249 -6.731230 160.538135 99 22 12
-12.414066 -6.719303 160.184845 99 20 13
-12.414976 -6.713337 160.008114 98 19 12
-12.415885 -6.707368 159.831327 97 16 12
-12.508425 -7.475162 159.510446 94 15 11
-12.509347 -7.469335 159.334171 92 14 12
-12.510269 -7.463506 159.157839 88 14 13
-12.512113 -7.451843 158.805006 84 14 14
-13.479735 -15.624981 157.311114 83 12 6
-13.480770 -15.620626 157.141237 97 12 9
-13.397824 -14.893659 156.930791 100 17 11
-13.398850 -14.889173 156.760173 125 27 24
-13.399877 -14.884686 156.589503 142 43 38
-13.400905 -14.880198 156.418780 160 71 65
-13.401932 -14.875708 156.248005 194 107 100
-13.318336 -14.142827 156.033109 201 112 106
-13.319355 -14.138206 155.861585 203 106 99
-13.320374 -14.133582 155.690008 200 89 82
-13.235127 -13.399733 155.644275 193 76 67
-13.236138 -13.394977 155.471997 192 66 52
-13.237148 -13.390220 155.299665 192 72 55
-13.239170 -13.380701 154.954841 189 90 67
-13.153275 -12.641062 154.906110 192 99 81
-13.154277 -12.636167 154.732963 198 122 106
-13.067755 -11.891072 154.683166 203 124 109
-13.068747 -11.886041 154.509305 204 147 128
-13.070733 -11.875974 154.161420 198 162 138
-13.071726 -11.870938 153.987395 188 173 144
-12.984540 -11.119914 153.934521 191 177 150
-12.985524 -11.114739 153.759776 193 177 152
-12.897695 -10.358129 153.705791 194 178 153
-12.899643 -10.347497 153.354791 194 179 156
-12.900618 -10.342178 153.179208 193 181 157
-12.901593 -10.336858 153.003569 193 182 160
-12.902568 -10.331536 152.827875 192 184 161
-12.814049 -9.568712 152.770053 192 186 164
-12.725838 -8.794702 152.534639 190 184 162
-12.726793 -8.789092 152.357470 192 186 164
-12.727748 -8.783480 152.180245 193 187 163
-12.728704 -8.777867 152.002963 195 187 164
-12.729660 -8.772252 151.825625 195 188 162
-12.549251 -7.217001 151.700636 196 188 165
-12.550186 -7.211091 151.521854 196 189 163
-12.642624 -7.980190 151.228960 194 188 162
-12.459894 -6.418622 151.278336 195 191 164
-12.552991 -7.193350 150.985163 194 187 159
-12.645464 -7.962881 150.694017 188 175 143
-12.463592 -6.394357 150.559591 192 185 159
-12.463592 -6.394357 150.559591 189 179 152
-12.465443 -6.382213 150.199869 186 172 143
-12.466369 -6.376138 150.019921 183 168 137
-12.197266 -5.680368 149.940659 179 163 130
-11.927922 -4.966906 149.498121 174 155 122
-11.928767 -4.960554 149.316678 170 150 115
-11.558617 -3.449870 149.343089 176 156 121
-11.282127 -2.732826 149.260182 171 151 116
-12.600524 -13.558412 147.454546 135 102 69
-12.601441 -13.553650 147.279934 137 104 71
-12.341606 -12.906306 147.193578 140 107 74
-12.432987 -13.641045 146.922021 156 126 92
-12.171731 -12.998968 147.009701 159 128 97
-12.173436 -12.989233 146.659077 160 131 101
-11.911189 -12.337686 146.570244 158 129 99
-11.912004 -12.332696 146.394228 155 126 96
-11.912818 -12.327706 146.218155 151 121 93
-11.632351 -10.056217 146.325457 136 105 74
-11.459958 -10.150258 146.139001 143 112 81
-11.460710 -10.144864 145.960920 139 110 78
-11.461462 -10.139468 145.782782 137 108 76
-11.462214 -10.134070 145.604588 131 104 74
-12.822269 -21.017166 144.280872 125 97 73
-12.824106 -21.010214 143.942589 135 105 79
-12.825025 -21.006736 143.773370 140 110 82
-12.825944 -21.003257 143.604100 142 113 83
-13.076320 -21.591841 143.361763 146 117 87
-12.827783 -20.996297 143.265406 150 121 89
-12.829623 -20.989332 142.926507 154 123 92
-13.080139 -21.578314 142.686063 152 121 90
-13.081095 -21.574929 142.517011 149 118 89
-13.166854 -22.255446 142.271219 140 113 86
-13.167820 -22.252174 142.102642 126 100 77
-13.168785 -22.248901 141.934014 117 94 76
-13.007488 -22.337718 141.589524 112 93 78
-13.008430 -22.334457 141.420799 72 56 43
-13.009372 -22.331195 141.252023 68 54 45
-13.010314 -22.327932 141.083196 125 115 106
-13.011256 -22.324668 140.914318 150 143 135
-13.097103 -23.001550 140.674401 166 159 153
-13.432157 -25.674953 140.228957 158 154 151
-13.351414 -25.006753 139.963998 167 164 159
-13.269120 -24.336686 139.864485 167 164 157
-13.270093 -24.333752 139.697025 171 167 158
-13.271065 -24.330817 139.529515 168 164 153
-13.355339 -24.995450 139.296326 170 166 155
-13.603002 -26.969600 138.936642 170 168 156
-13.605019 -26.964580 138.605777 170 168 156
-13.359269 -24.984133 138.627859 169 166 159
-13.360252 -24.981302 138.460618 166 165 160
-13.608047 -26.957045 138.109113 172 167 161
-13.527315 -26.299208 138.003906 169 168 164
-13.529318 -26.293969 137.671335 169 168 166
-13.448017 -25.631411 137.564126 164 164 164
-13.449011 -25.628682 137.397153 166 166 166
-13.367142 -24.961459 137.288534 163 161 162
-13.696384 -27.591131 136.891810 172 171 169
-12.342858 -18.153537 137.367961 171 146 115
-12.432954 -18.860171 137.134329 168 145 113
-12.433828 -18.856306 136.961245 171 148 116
-12.523354 -19.558498 136.729730 172 152 119
-12.613198 -20.252544 136.327724 172 153 120
-12.866660 -20.849144 136.105129 177 158 125
-12.614989 -20.245286 135.983493 179 160 128
-12.615886 -20.241655 135.811299 179 160 130
-12.704305 -20.935322 135.585046 179 162 134
-12.705212 -20.931808 135.413345 181 164 136
-12.619474 -20.227121 135.121993 178 161 133
-12.620372 -20.223484 134.949535 179 162 134
-12.533103 -19.517224 134.828374 179 163 130
-12.709751 -20.914220 134.554056 178 163 132
-12.446092 -18.802061 134.532462 178 159 126
-12.798584 -21.600741 134.161104 178 162 129
-12.800423 -21.593930 133.818008 178 159 129
-12.800423 -21.593930 133.818008 173 154 124
-12.714297 -20.896606 133.693455 162 140 116
-12.627563 -20.194353 133.567965 148 130 110
-12.725525 -22.369991 133.253020 151 130 109
-12.727336 -22.363432 132.910709 141 124 106
-12.814761 -23.045140 132.696001 137 119 105
-12.477369 -21.764601 132.607172 139 127 115
-12.478240 -21.761218 132.435296 142 133 124
-12.479111 -21.757833 132.263367 144 137 131
-12.479983 -21.754447 132.091385 143 138 134
-12.580348 -23.901022 131.623670 146 141 135
-12.581226 -23.897993 131.453376 144 141 136
-12.331575 -23.311837 131.317669 145 141 138
-12.244886 -22.620240 131.013255 146 142 141
-12.421900 -23.983332 130.768065 152 148 147
-12.347855 -24.754324 130.558177 153 152 150
-12.348694 -24.751432 130.388281 158 157 155
-12.350374 -24.745645 130.048336 162 162 162
-12.351214 -24.742750 129.878286 166 166 166
-12.352055 -24.739855 129.708186 168 168 168
-12.440174 -25.409343 129.505974 168 168 168
-12.527736 -26.074605 129.305093 171 169 170
-12.528597 -26.071926 129.136011 171 169 170
-12.194056 -24.823381 128.853919 169 169 169
-12.194874 -24.820495 128.683571 170 170 170
-12.283604 -25.490385 128.484648 171 170 168
-12.284432 -25.487608 128.314787 171 170 168
-12.285260 -25.484831 128.144874 170 169 167
-12.110421 -24.128334 127.857398 170 170 170
-12.111230 -24.125332 127.686147 170 170 170
-12.288576 -25.473713 127.464715 171 170 168
-12.039159 -24.895860 127.316464 171 169 170
-12.216507 -26.235295 127.098289 171 169 170
-12.218139 -26.229977 126.758995 171 169 170
-12.218955 -26.227316 126.589273 171 169 170
-12.307215 -26.889595 126.398361 171 169 170
-12.308042 -26.887041 126.229123 172 170 171
-12.308869 -26.884487 126.059833 173 171 172
-12.309696 -26.881931 125.890494 174 172 173
-12.311351 -26.876818 125.551663 174 172 173
-12.399107 -27.535462 125.364670 174 172 173
-12.399945 -27.533010 125.195713 175 173 174
-12.400783 -27.530558 125.026705 176 174 175
-12.314665 -26.866583 124.873395 177 175 176
-12.316323 -26.861460 124.533957 178 176 177
-12.317153 -26.858898 124.364162 180 178 179
-12.230407 -26.189988 124.207811 182 180 181
-12.318813 -26.853771 124.024419 182 180 181
-12.406660 -27.513370 123.842240 183 181 182
-12.407501 -27.510912 123.672829 184 182 183
-12.495657 -28.164118 123.323455 184 182 183
-12.496509 -28.161763 123.154477 182 182 182
-12.583287 -28.813424 122.976278 182 182 182
-12.584148 -28.811172 122.807781 182 182 182
-12.499064 -28.154695 122.647242 182 182 182
-12.499916 -28.152338 122.478063 182 182 182
-12.501621 -28.147621 122.139554 182 182 182
-12.673881 -29.450262 121.958905 182 182 182
-12.589322 -28.797649 121.795750 182 182 182
-12.675627 -29.445957 121.622421 182 182 182
-12.505035 -28.138178 121.461933 182 182 182
-12.592777 -28.788621 121.120062 182 182 182
-12.679121 -29.437340 120.948856 182 182 182
-12.679995 -29.435184 120.780341 182 182 182
-12.680869 -29.433028 120.611775 182 182 182
-12.596235 -28.779581 120.443573 182 182 182
-12.511874 -28.119260 120.104270 182 182 182
-12.512730 -28.116892 119.934335 182 182 182
-12.599698 -28.770531 119.766281 182 182 182
-12.600564 -28.768267 119.596832 182 182 182
-12.515299 -28.109784 119.424225 182 182 182
-12.773776 -30.061443 119.096671 183 183 183
-12.774662 -30.059383 118.928188 183 183 183
-12.775549 -30.057322 118.759655 182 182 182
-12.776436 -30.055260 118.591072 182 182 182
-12.692260 -29.404935 118.415882 182 182 182
-12.694016 -29.400603 118.077302 182 182 182
-12.864523 -30.691345 117.924498 182 182 182
-12.865420 -30.689382 117.756246 181 181 181
-12.781763 -30.042878 117.578531 181 181 181
-12.867216 -30.685455 117.419594 181 181 181
-12.783541 -30.038746 117.240618 180 180 180
-12.785320 -30.034611 116.902506 180 180 180
-12.786210 -30.032543 116.733375 181 181 183
-12.787100 -30.030474 116.564193 181 181 183
-13.031342 -30.576673 116.407040 182 182 184
-13.032266 -30.574690 116.238281 184 184 186
-13.200661 -31.849792 115.930799 186 186 188
-13.118593 -31.210458 115.747428 187 187 189
-13.119526 -31.208573 115.579051 188 188 188
-13.120461 -31.206688 115.410624 188 188 188
-13.037814 -30.562780 115.224681 188 187 185
-12.954600 -29.914453 115.037407 182 181 177
-12.786449 -28.604358 114.658806 177 174 169
-12.957351 -29.908182 114.528025 180 179 174
-13.201625 -30.455985 114.376511 179 178 173
-13.521471 -30.261166 114.202736 178 175 170
-14.162395 -32.618763 114.114175 180 177 170
-14.322429 -32.521090 113.776944 179 176 169
-14.403351 -31.792948 113.584109 177 176 171
-14.952142 -33.490242 113.481022 177 176 171
-15.185948 -34.017250 113.335472 177 176 171
-15.804612 -34.972419 113.209768 179 178 173
-16.487599 -36.520009 112.945524 179 178 173
-16.731349 -35.736737 112.751424 178 177 172
-17.180142 -36.763167 112.632788 179 176 169
-17.753090 -38.954101 112.566492 182 179 172
-18.125320 -39.363878 112.425392 180 177 168
-18.280446 -39.277478 112.261427 179 176 167
-18.219512 -38.693224 112.073106 178 174 165
-18.094843 -37.514200 111.855779 177 172 166
-18.096451 -37.513279 111.692618 175 172 167
-18.349101 -39.855057 111.643567 182 178 169
-17.789442 -37.684554 111.371926 179 174 168
-17.636078 -37.770663 111.211692 181 177 168
-17.418490 -37.261849 110.857223 176 176 168
-17.264770 -37.348723 110.696614 176 176 168
-16.820086 -36.325306 110.474322 174 174 164
-16.526742 -35.199370 110.245928 168 168 158
-15.915510 -34.239002 109.854569 172 170 158
-14.985543 -32.103200 109.557258 170 166 155
-14.273064 -30.465752 109.286721 166 160 148
-14.114934 -30.556940 108.949243 168 160 149
-13.874676 -30.003253 108.742682 164 154 144
-13.716119 -30.095217 108.404182 163 153 143
-13.473800 -29.538332 108.195188 151 143 132
-13.718186 -30.091077 108.061393 141 134 124
-13.881023 -29.990746 107.713949 127 127 117
-14.123658 -30.540970 107.581886 132 135 126
-14.124750 -30.538971 107.410738 132 140 129
-14.125842 -30.536971 107.239540 130 138 127
-14.126934 -30.534971 107.068290 131 134 123
-13.804567 -29.327665 106.808513 125 127 114
-15.125964 -39.866244 107.400769 178 165 148
-15.410893 -43.414191 107.496631 192 182 170
-15.119459 -42.367343 107.096492 195 187 174
-14.600142 -38.271255 106.623587 106 90 65
-14.372145 -36.457651 106.153079 94 80 67
-14.138619 -35.940520 106.110451 96 86 74
-14.062815 -36.645549 105.997169 85 88 79
-13.750701 -35.512003 105.570901 79 88 83
-13.276558 -34.461269 105.312930 75 89 89
-13.120786 -34.556800 105.150072 95 113 113
-12.640726 -33.492368 104.718390 121 137 136
-12.311997 -32.316650 104.445878 134 150 147
-11.978858 -31.125187 104.169709 137 159 157
-12.067744 -31.770011 104.054267 156 164 153
-11.821082 -31.221567 103.831982 174 171 152
-11.821833 -31.219661 103.659998 183 172 150
-11.822584 -31.217755 103.487963 188 176 152
-11.734035 -30.564695 103.256582 186 178 159
-11.824087 -31.213940 103.143740 175 159 134
-11.736259 -30.558660 102.738188 176 159 133
-11.737000 -30.556647 102.565287 163 143 116
-11.737742 -30.554634 102.392335 153 132 105
-11.738484 -30.552620 102.219330 142 122 95
-11.488732 -29.995659 101.989232 131 111 86
-11.490147 -29.991449 101.641867 123 105 81
-12.440489 -35.643729 102.038148 133 116 90
-12.199728 -35.118482 101.813682 137 119 95
-12.200520 -35.117178 101.644639 140 122 98
-12.201312 -35.115873 101.475547 142 124 100
-12.202897 -35.113262 101.137214 144 127 101
-12.289677 -35.735127 101.033931 152 131 104
-12.290479 -35.733915 100.865228 157 136 107
-12.376733 -36.352033 100.763172 167 146 119
-12.377546 -36.350914 100.594954 174 153 126
-11.963508 -34.578785 100.229470 173 156 130
-11.964269 -34.577396 100.059456 179 162 136
-12.225582 -36.445279 99.929431 188 166 142
-12.311863 -37.059774 99.830761 188 166 142
-12.227165 -36.443067 99.592589 188 168 144
-12.227956 -36.441961 99.424095 189 168 147
-12.143456 -35.819773 99.014437 191 173 151
-12.144238 -35.818572 98.845209 192 175 155
-12.075917 -36.536761 98.757964 191 170 149
-12.163557 -37.150620 98.494934 191 170 149
-12.164337 -37.149618 98.326747 192 171 150
-12.404916 -37.662176 98.225003 191 173 153
-12.405729 -37.661250 98.057233 191 174 154
-12.149721 -35.810152 97.659236 193 177 161
-12.323096 -37.045552 97.476240 190 175 156
-12.238266 -36.427545 97.229213 196 179 159
-12.239061 -36.426434 97.060032 198 177 156
-12.239856 -36.425322 96.890802 196 174 150
-12.481431 -36.942652 96.792696 193 169 143
-12.482259 -36.941619 96.623888 191 165 138
-12.567684 -37.554347 96.535949 192 168 140
-12.652585 -38.163310 96.448605 197 173 147
-12.973230 -39.273303 96.433176 199 177 153
-12.974118 -39.272615 96.266425 197 177 152
-12.975006 -39.271927 96.099625 194 174 149
-13.210849 -39.773224 96.005196 193 173 148
-13.211769 -39.772609 95.838807 195 175 150
-13.213609 -39.771379 95.505886 198 178 154
-13.214529 -39.770763 95.339354 197 177 153
-13.449167 -40.269525 95.247281 198 178 154
-13.450118 -40.268983 95.081158 198 178 154
-13.683467 -40.765012 94.990057 197 177 153
-13.685431 -40.764070 94.658578 196 176 152
-13.687397 -40.763128 94.326912 196 176 152
-13.688380 -40.762656 94.161008 196 176 152
-13.690348 -40.761713 93.829058 196 176 152
-13.691332 -40.761241 93.663012 196 176 151
-13.693301 -40.760297 93.330779 196 176 151
-13.461556 -40.262457 93.083988 196 176 152
-13.462511 -40.261913 92.917248 194 174 150
-13.463466 -40.261368 92.750461 191 171 147
-13.230214 -39.760274 92.501017 187 167 142
-13.231139 -39.759656 92.333626 187 167 142
-13.232065 -39.759037 92.166186 189 169 144
-13.233916 -39.757799 91.831163 190 170 145
-12.999080 -39.253270 91.577915 194 172 148
-12.999976 -39.252576 91.409770 197 175 151
-13.000871 -39.251882 91.241576 197 175 151
-12.919008 -38.645846 90.974269 194 174 150
-12.919895 -38.645062 90.805394 180 159 138
-12.753618 -37.421454 90.434052 162 140 119
-12.670081 -36.803014 90.161104 146 124 103
-12.670941 -36.801955 89.990303 152 131 114
-12.671802 -36.800894 89.819453 156 137 122
-12.588528 -36.176891 89.371732 157 139 125
-12.674386 -36.797712 89.306604 156 139 129
-12.675248 -36.796650 89.135555 151 137 128
-12.505503 -35.547179 88.748389 147 133 120
-12.420192 -34.915464 88.466317 148 134 121
-12.507190 -35.544674 88.403617 147 134 118
-12.508878 -35.542168 88.058643 149 134 115
-12.423528 -34.910064 87.773918 147 130 110
-12.424363 -34.908713 87.600690 144 127 107
-12.597915 -36.164162 87.481341 138 120 98
-12.513101 -35.535896 87.195318 140 119 98
-12.513946 -35.534640 87.022501 140 118 95
-12.429376 -34.900597 86.560250 144 123 102
-12.430212 -34.899243 86.386664 148 126 105
-12.431049 -34.897889 86.213026 152 130 109
-12.431886 -34.896534 86.039337 159 137 116
-12.432723 -34.895179 85.865597 165 143 122
-12.519871 -35.525841 85.811352 165 138 117
-12.606474 -36.152555 85.757503 157 129 107
-12.608189 -36.150229 85.412128 160 132 111
-12.609046 -36.149066 85.239364 159 131 110
-12.609905 -36.147902 85.066549 155 127 106
-12.610763 -36.146738 84.893684 149 121 100
-12.611621 -36.145574 84.720768 147 119 97
-12.612480 -36.144409 84.547801 146 118 96
-12.613339 -36.143244 84.374783 146 118 96
-12.615058 -36.140913 84.028594 146 118 96
-12.615918 -36.139747 83.855423 146 118 96
-12.616778 -36.138580 83.682201 146 118 96
-12.617638 -36.137414 83.508929 149 119 95
-12.619360 -36.135079 83.162230 150 120 96
-12.534312 -35.504396 82.859562 150 122 100
-12.621082 -36.132743 82.815328 143 113 89
-12.621944 -36.131575 82.641800 143 113 89
-12.622806 -36.130406 82.468221 143 113 89
-12.709053 -36.755011 82.425450 143 113 87
-12.709925 -36.753937 82.252385 144 114 88
-12.868248 -36.653360 82.064487 143 111 86
-12.870040 -36.651181 81.717965 140 108 83
-12.870936 -36.650091 81.544628 139 107 84
-12.786942 -36.022353 81.236632 145 117 95
-12.872730 -36.647910 81.197801 140 110 86
-12.873627 -36.646819 81.024311 138 107 86
-12.874525 -36.645728 80.850770 133 105 83
-12.876321 -36.643545 80.503535 135 108 87
-12.961611 -37.265572 80.467265 155 130 108
-12.962518 -37.264574 80.294136 154 132 111
-12.963427 -37.263576 80.120957 154 133 114
-12.965243 -37.261579 79.774447 146 127 110
-13.206921 -37.781261 79.725047 135 116 99
-13.686098 -38.811644 79.627101 125 108 92
-13.923622 -39.322396 79.578550 120 103 87
-13.844506 -38.712646 79.267698 137 120 102
-14.161924 -39.828997 79.188459 106 89 73
-14.241611 -40.430177 79.157003 97 78 61
-14.397901 -40.333534 78.970922 101 80 61
-14.399001 -40.332995 78.800371 101 80 63
-14.477948 -39.633974 78.472657 157 136 119
-14.787575 -42.020821 78.694947 129 112 94
-15.017906 -42.513623 78.649823 137 120 102
-15.320601 -43.584501 78.743437 156 141 122
-15.547380 -44.068467 78.698561 156 141 122
-15.772895 -44.549735 78.653936 153 140 123
-15.926374 -44.457327 78.471844 158 142 126
-16.220173 -45.504262 78.565427 156 143 127
-16.151649 -44.936613 78.261715 161 145 130
-16.082676 -44.365243 77.955957 161 145 129
-15.860287 -43.882629 77.663849 163 147 131
-15.861574 -43.882602 77.496377 161 145 129
-15.862860 -43.882575 77.328858 158 142 127
-15.864147 -43.882549 77.161291 155 139 126
-15.865434 -43.882522 76.993677 152 138 125
-15.641558 -43.396645 76.697519 151 137 124
-15.786865 -44.550470 76.818748 151 137 124
-16.010134 -45.029665 76.946025 149 135 122
-16.011434 -45.029800 76.779414 147 133 120
-15.860769 -45.122305 76.628975 147 135 121
-15.860769 -45.122305 76.628975 148 136 122
-15.638342 -44.643578 76.333651 148 136 122
-15.414543 -44.161897 76.036504 149 137 123
-15.188164 -43.677292 75.905786 148 138 126
-14.961611 -43.189692 75.605510 148 138 126
-14.733647 -42.699056 75.303365 148 138 128
-14.734784 -42.698859 75.133965 148 138 128
-14.270805 -40.415947 74.537940 147 137 127
-13.800394 -39.397885 74.087707 149 139 127
-13.801418 -39.397204 73.914806 148 139 124
-13.962802 -40.608230 74.057906 149 139 127
-14.197224 -41.111444 74.196704 150 138 126
-15.349765 -43.582824 74.709763 148 136 124
-14.233824 -41.096830 68.346442 122 109 92
-14.389785 -40.999846 68.326487 108 95 78
-14.311185 -40.396264 68.149158 99 82 66
-14.312283 -40.395729 67.975534 94 77 61
-14.077166 -39.885089 67.642340 99 82 64
-14.077166 -39.885089 67.642340 106 89 71
-13.166262 -32.931164 65.404506 103 86 70
-13.421635 -34.878255 65.982350 112 91 70
-13.667662 -35.417677 65.972857 113 95 75
-13.669728 -35.415092 65.614964 111 94 76
-13.503294 -34.127332 65.049178 104 88 72
-13.503294 -34.127332 65.049178 98 86 70
-13.833094 -35.313063 65.235922 60 52 39
-9.909433 -4.947944 56.078839 80 76 64
-9.909985 -4.941131 55.868245 85 83 71
-9.910537 -4.934316 55.657578 80 80 70
-9.460486 -1.439750 54.384807 83 87 72
-9.460486 -1.439750 54.384807 83 86 75
-9.460968 -1.432200 54.170353 34 35 30
-9.689096 -3.175665 54.281877 0 0 0
-16.164025 -33.893081 57.886152 65 57 36
-16.768243 -37.604421 58.798777 59 57 36
-17.001801 -38.130632 58.810742 60 59 38
-17.574882 -41.679642 59.860350 63 61 38
-17.800808 -42.181890 59.868865 64 62 39
-17.894264 -41.496634 59.468861 65 64 43
-17.829654 -40.898135 59.087482 66 65 44
-18.055892 -41.405136 59.098344 67 66 45
-17.991842 -40.806205 58.715505 69 68 47
-17.590236 -37.131223 57.258795 78 72 48
-17.521477 -36.504660 57.040309 79 71 48
-17.523084 -36.503538 56.860388 81 73 50
-17.526300 -36.501293 56.500386 85 77 54
-17.364912 -36.592990 56.342474 85 79 55
-17.504748 -37.841358 56.604361 82 77 55
-17.275116 -37.310559 56.227004 85 80 58
-17.043984 -36.776292 55.847181 85 80 58
-16.811336 -36.238522 55.464868 92 87 67
-16.577159 -35.697217 55.080042 94 89 69
-16.416568 -35.789669 54.740515 93 88 68
-16.180338 -35.245208 54.352080 97 94 75
-16.106982 -34.601003 53.937255 112 107 88
-15.627546 -33.492712 53.146923 119 113 97
-15.385423 -32.933008 52.747793 126 120 104
-15.141675 -32.369547 52.345984 132 126 110
-14.977943 -32.464578 51.999856 125 118 100
-14.893507 -33.221218 52.083036 117 109 90
-14.484450 -31.327116 51.185867 128 116 100
-14.236354 -30.750546 50.587089 129 116 99
-13.985369 -30.172028 50.172459 130 115 96
-13.903655 -30.948483 50.264018 136 121 102
-13.904761 -30.946456 50.076346 136 121 100
-13.653813 -30.366816 49.471727 137 122 101
-13.821751 -30.264950 49.445038 129 116 97
-13.822849 -30.262809 49.256471 131 118 101
-13.822849 -30.262809 49.256471 133 121 105
-13.823948 -30.260667 49.067845 138 126 110
-13.402111 -29.780817 48.673535 144 134 122
-13.146526 -29.195085 48.249502 150 140 130
-13.146526 -29.195085 48.249502 157 148 139
-13.147526 -29.192761 48.059469 165 158 148
-13.147526 -29.192761 48.059469 171 167 158
-13.148526 -29.190437 47.869376 169 165 156
-13.149527 -29.188111 47.679223 165 161 152
-13.149527 -29.188111 47.679223 158 154 145
-13.150527 -29.185785 47.489011 149 145 136
-12.893039 -28.595626 47.059181 138 134 125
-12.893039 -28.595626 47.059181 129 125 114
-12.803753 -27.896770 46.598079 128 126 113
-14.086967 -30.818635 47.603996 125 122 107
-10.690801 6.526346 179.676569 71 16 9
-11.570823 0.752894 177.961804 80 16 7
-11.570823 0.752894 177.961804 80 16 7
-11.078472 4.930726 178.879430 77 17 9
-11.079198 4.938888 178.698273 79 16 9
-11.079198 4.938888 178.698273 80 15 9
-11.079924 4.947052 178.517055 80 15 9
-11.080650 4.955220 178.335776 79 16 9
-11.767236 -0.838407 176.649502 80 15 9
-11.379561 2.440999 177.500151 79 16 9
-11.658385 1.716570 177.122846 77 17 9
-11.864100 -1.629996 176.087952 82 19 10
-11.864932 -1.623130 175.911537 84 22 11
-11.382633 2.471672 176.781974 77 19 8
-11.382633 2.471672 176.781974 79 19 9
-11.383402 2.479347 176.602281 79 19 9
-11.384171 2.487024 176.422528 82 18 9
-11.962876 -2.396349 175.002224 84 26 14
-11.962876 -2.396349 175.002224 83 27 14
-11.964568 -2.382902 174.650005 84 26 14
-12.059396 -3.171693 174.274016 89 27 14
-12.060254 -3.165116 174.098382 90 26 14
-12.060254 -3.165116 174.098382 93 25 12
-11.585129 0.885109 174.750856 91 23 10
-11.682673 0.073342 174.368892 90 24 10
-12.063691 -3.138790 173.395279 95 21 8
-12.157942 -3.923035 173.024662 97 19 7
-12.158814 -3.916597 172.849304 97 17 6
-12.252447 -4.695741 172.481782 99 17 6
-12.253331 -4.689448 172.306924 99 17 6
-12.254215 -4.683154 172.132010 100 16 6
-12.255985 -4.670558 171.782014 100 16 6
-12.349040 -5.445088 171.419216 100 16 6
-12.082569 -4.753698 171.416573 101 14 5
-12.083426 -4.747410 171.241427 101 14 5
-12.084284 -4.741120 171.066226 101 14 5
-12.085142 -4.734827 170.890969 102 15 6
-12.178883 -5.509872 170.531026 102 15 6
-11.709468 -1.533674 171.111542 103 16 7
-11.983247 -2.234407 170.760481 101 17 6
-12.448751 -6.166319 169.665529 100 16 5
-11.711900 -1.512933 170.577426 100 18 6
-12.080941 -3.006649 169.866090 100 18 6
-12.542509 -6.919962 168.964253 101 17 6
-12.544355 -6.908183 168.616239 101 17 6
-12.635704 -7.669094 168.267348 103 16 6
-12.178068 -3.774439 168.977091 99 20 7
-12.637573 -7.657590 167.920211 104 18 5
-12.638509 -7.651835 167.746560 104 18 5
-12.639444 -7.646078 167.572854 105 17 5
-12.641316 -7.634559 167.225276 106 16 5
-12.642253 -7.628797 167.051405 107 18 4
-12.277310 -4.518779 167.564461 109 17 6
-12.644126 -7.617267 166.703496 107 18 4
-12.645064 -7.611499 166.529458 107 18 4
-12.289692 -6.159301 166.678875 110 18 5
-12.474536 -7.689458 165.993250 107 18 4
-12.106680 -4.576866 166.491157 110 17 2
-12.107546 -4.570521 166.314426 109 17 2
-12.108411 -4.564174 166.137639 109 17 4
-12.109277 -4.557825 165.960794 108 19 5
-12.204232 -5.330766 165.440251 106 23 9
-12.205110 -5.324560 165.263860 107 25 13
-12.205988 -5.318352 165.087412 109 27 15
-12.206867 -5.312142 164.910908 106 28 15
-12.300362 -6.086656 164.571319 100 32 19
-12.843644 -10.653126 163.444330 92 23 16
-12.844601 -10.647904 163.271929 92 23 16
-12.395941 -6.838229 163.707584 92 32 21
-12.396844 -6.832301 163.531982 90 32 20
-12.397748 -6.826371 163.356324 88 30 18
-12.398652 -6.820439 163.180610 89 29 18
-12.938653 -11.361298 162.085853 97 24 17
-12.939622 -11.356200 161.913669 102 25 17
-12.493722 -7.568141 162.323207 96 26 14
-12.494638 -7.562344 162.147830 99 25 12
-12.495555 -7.556544 161.972397 102 24 12
-12.496473 -7.550743 161.796908 101 23 10
-12.588249 -8.311593 161.470912 104 22 8
-12.589178 -8.305931 161.295927 104 22 8
-12.591037 -8.294602 160.945790 104 22 8
-12.591966 -8.288934 160.770638 101 23 10
-13.125350 -12.777499 159.732342 107 21 8
-13.126343 -12.772647 159.560701 100 21 14
-13.213986 -13.499264 159.249764 93 18 15
-13.214989 -13.494539 159.078607 90 14 16
-12.687889 -9.017636 159.575283 96 19 13
-12.688832 -9.012097 159.400356 92 17 12
-12.425846 -8.339567 159.355482 90 16 13
-12.963508 -12.833286 158.345972 75 14 9
-13.224716 -15.010037 157.771460 80 12 13
-13.397330 -16.431575 157.169300 85 14 8
-13.398349 -16.427359 157.000053 102 17 10
-13.147005 -15.804234 156.948436 127 23 20
-13.147988 -15.799906 156.778558 148 40 40
-13.063706 -15.073206 156.566897 153 50 51
-13.064680 -15.068749 156.396277 173 77 78
-13.064680 -15.068749 156.396277 202 119 115
-12.978799 -14.341114 156.353554 203 118 111
-12.979764 -14.336526 156.182240 203 110 102
-12.981696 -14.327346 155.839453 188 84 75
-12.895173 -13.594127 155.794428 194 79 72
-12.896129 -13.589404 155.622308 190 69 60
-12.808977 -12.850799 155.576252 187 65 52
-12.808977 -12.850799 155.576252 190 79 60
-12.810870 -12.841084 155.230545 191 103 81
-12.811818 -12.836224 155.057610 195 129 103
-12.812765 -12.831362 154.884621 198 150 127
-13.072441 -13.461174 154.426613 197 161 139
-12.808935 -11.236081 154.622356 204 147 128
-12.810845 -11.225775 154.273356 198 162 138
-12.811801 -11.220620 154.098773 188 173 144
-12.812757 -11.215463 153.924135 187 178 149
-13.073714 -11.860861 153.639181 193 179 153
-13.162303 -12.596954 153.345833 194 182 156
-13.076698 -11.845733 153.116450 196 181 158
-12.989461 -11.094024 153.060242 194 182 158
-12.990447 -11.088841 152.885221 193 182 160
-12.991432 -11.083656 152.710145 192 184 161
-12.814049 -9.568712 152.770053 192 186 164
-12.905495 -10.315559 152.300458 193 187 165
-12.995378 -11.062902 152.009285 193 189 164
-12.734696 -10.400883 151.938793 197 191 167
-12.735646 -10.395568 151.762817 197 191 165
-12.646393 -9.632153 151.700953 197 190 164
-12.383420 -8.954463 151.451520 194 187 159
-12.293051 -8.174193 151.209878 193 186 158
-12.025880 -7.491644 151.135510 188 181 153
-11.837732 -5.920138 151.184558 195 188 160
-11.838558 -5.913975 151.004414 193 182 152
-11.566696 -5.215369 150.928493 188 175 143
-11.568266 -5.202765 150.566713 182 167 136
-11.569052 -5.196461 150.385735 176 161 128
-11.295109 -4.492419 150.307278 170 154 120
-11.295853 -4.485975 150.125577 165 147 111
-12.513871 -14.421694 148.564511 147 113 78
-12.255102 -13.780869 148.482991 147 113 78
-12.255963 -13.776148 148.308816 150 117 82
-12.255963 -13.776148 148.308816 152 119 84
-11.995371 -13.130786 148.226120 154 121 86
-11.997019 -13.121106 147.876377 154 124 90
-12.090390 -13.850131 147.428330 166 137 105
-12.091226 -13.845418 147.253882 174 145 115
-12.000316 -13.101728 147.176232 166 137 105
-11.814908 -11.608347 147.371959 147 114 81
-11.455452 -10.182586 147.206293 143 110 77
-11.456203 -10.177202 147.028553 143 110 77
-11.456953 -10.171817 146.850756 143 113 79
-11.552742 -10.926665 146.576512 154 125 93
-11.553505 -10.921416 146.399237 154 125 93
-11.554269 -10.916166 146.221906 151 122 92
-11.555797 -10.905660 145.867075 145 116 86
-12.991522 -22.393006 144.450097 121 93 71
-12.992459 -22.389761 144.282233 129 99 73
-12.993396 -22.386516 144.114318 136 105 77
-12.995272 -22.380022 143.778337 142 111 82
-12.996210 -22.376774 143.610270 146 115 86
-12.834350 -22.469059 143.434425 155 122 91
-13.082849 -23.048729 143.194386 159 126 95
-13.083798 -23.045590 143.026740 162 131 100
-12.837092 -22.459350 142.929936 164 133 102
-12.924298 -23.131528 142.516063 167 138 108
-13.171844 -23.707567 142.279419 167 137 109
-13.172803 -23.704535 142.112091 161 134 105
-13.173762 -23.701502 141.944713 158 130 106
-13.174722 -23.698468 141.777284 152 125 104
-13.175682 -23.695434 141.609806 136 113 95
-13.177602 -23.689361 141.274698 97 78 63
-13.178563 -23.686324 141.107069 45 28 18
-13.263294 -24.354274 140.868197 53 40 32
-13.264264 -24.351345 140.701036 100 91 86
-13.265235 -24.348415 140.533826 159 154 150
-13.349453 -25.012399 140.297535 158 154 151
-13.678067 -27.634469 139.861370 161 160 155
-13.680098 -27.629665 139.532193 176 173 166
-13.599978 -26.977124 139.432574 172 168 157
-13.519313 -26.320134 139.332221 175 171 159
-13.601994 -26.972109 139.102001 171 167 155
-13.844915 -28.908376 138.747723 170 170 162
-13.845949 -28.906173 138.583966 172 169 162
-13.528271 -27.706781 138.372435 172 169 160
-13.610484 -28.350798 138.146736 174 170 161
-13.448503 -27.051271 138.103092 173 169 160
-13.449489 -27.048772 137.937495 173 168 162
-13.532249 -27.697202 137.712367 176 169 161
-13.374338 -27.789143 137.541356 178 171 163
-13.292966 -27.135871 137.434581 175 170 164
-13.293929 -27.133384 137.268844 175 172 167
-13.052063 -26.570739 137.154914 172 171 167
-12.885326 -25.242012 136.936266 168 166 167
-12.887152 -25.236420 136.601072 167 165 166
-12.100789 -19.052205 136.950032 169 150 117
-13.141163 -27.210983 136.101905 173 174 176
-13.225082 -27.860078 135.882512 172 172 174
-12.193965 -19.742754 136.201087 178 158 125
-12.195634 -19.735316 135.855776 177 158 126
-12.374490 -21.129862 135.574711 175 156 126
-12.463472 -21.818598 135.350101 177 162 133
-12.198138 -19.724151 135.337411 181 164 136
-12.465205 -21.811863 135.007964 177 163 134
-12.553640 -22.496434 134.785923 178 164 135
-12.718294 -22.396186 134.620188 179 164 135
-12.805618 -23.076760 134.400085 180 164 138
-12.720100 -22.389643 134.278707 181 164 134
-12.807444 -23.070443 134.059680 181 164 136
-12.894234 -23.746924 133.842099 182 165 137
-12.895158 -23.743876 133.672355 181 164 134
-12.646842 -23.157785 133.544172 177 160 130
-12.647732 -23.154638 133.373796 174 155 125
-12.735116 -23.831321 133.158427 171 150 123
-12.486254 -23.245541 133.028524 159 137 114
-12.487985 -23.239271 132.687526 143 125 105
-12.312865 -21.862379 132.602962 137 123 112
-12.059861 -21.263464 132.469799 140 130 121
-12.150167 -21.953787 132.255157 142 135 125
-12.150988 -21.950432 132.083292 144 139 133
-11.988330 -22.042248 131.735446 146 141 137
-12.078651 -22.728240 131.523942 144 141 136
-12.182641 -24.863686 131.233427 147 142 136
-12.184269 -24.857939 130.894110 148 145 140
-11.844840 -23.597623 130.793725 151 147 144
-11.935155 -24.274718 130.586779 153 152 150
-12.024896 -24.947514 130.381204 158 156 157
-12.114869 -25.613299 130.007691 161 162 164
-12.203489 -26.277727 129.805348 165 165 167
-12.204301 -26.275081 129.636536 168 166 167
-12.117274 -25.605035 129.499505 169 167 168
-12.205926 -26.269786 129.298759 170 168 169
-12.119681 -25.596763 128.990863 171 169 170
-12.032018 -24.921722 128.850907 171 170 168
-12.209177 -26.259188 128.622601 170 169 167
-12.209991 -26.256536 128.453435 170 169 165
-12.384893 -27.577029 128.229283 171 170 166
-12.211618 -26.251231 128.114952 170 169 165
-12.213247 -26.245922 127.776267 170 169 165
-12.214062 -26.243266 127.606849 170 169 167
-12.302259 -26.904903 127.412734 171 170 168
-12.215692 -26.237953 127.267859 171 169 170
-12.303910 -26.899804 127.074811 171 169 170
-12.304736 -26.897253 126.905774 171 169 170
-12.306388 -26.892149 126.567549 171 169 170
-12.480379 -28.206382 126.356501 171 169 170
-12.481226 -28.204040 126.188423 172 170 171
-12.567824 -28.853837 126.000720 173 171 172
-12.653883 -29.499585 125.814241 173 171 172
-12.655617 -29.495310 125.480030 173 171 172
-12.656484 -29.493171 125.312851 174 172 173
-12.657351 -29.491031 125.145623 175 173 174
-12.658219 -29.488891 124.978345 176 174 175
-12.573828 -28.838146 124.826459 178 176 177
-12.574686 -28.835902 124.658510 178 176 177
-12.576404 -28.831411 124.322461 179 177 178
-12.577264 -28.829165 124.154362 180 178 179
-12.663431 -29.476038 123.973645 181 179 180
-12.578983 -28.824671 123.818016 183 181 182
-12.579843 -28.822423 123.649768 183 181 182
-12.581565 -28.817925 123.313122 184 182 183
-12.582426 -28.815674 123.144725 182 182 182
-12.753459 -30.108663 122.958115 183 183 183
-12.754340 -30.106616 122.790769 183 183 183
-12.839496 -30.746077 122.615521 183 183 183
-12.840386 -30.744130 122.448648 183 183 183
-12.842167 -30.740234 122.114754 183 183 183
-12.843059 -30.738286 121.947733 183 183 183
-12.843950 -30.736336 121.780664 183 183 183
-12.760510 -30.092275 121.617969 182 182 182
-12.761393 -30.090223 121.450229 182 182 182
-12.763159 -30.086119 121.114600 182 182 182
-12.764042 -30.084066 120.946712 182 182 182
-12.679995 -29.435184 120.780341 182 182 182
-12.850196 -30.722676 120.609804 183 183 183
-12.851090 -30.720722 120.442342 183 183 183
-12.768462 -30.073792 120.106528 182 182 182
-12.937648 -31.353801 119.940971 183 183 183
-12.854666 -30.712901 119.772002 183 183 183
-12.939455 -31.350088 119.606748 183 183 183
-12.772004 -30.065562 119.433489 183 183 183
-12.772889 -30.063503 119.265105 183 183 183
-12.774662 -30.059383 118.928188 183 183 183
-12.775549 -30.057322 118.759655 182 182 182
-12.776436 -30.055260 118.591072 182 182 182
-12.777323 -30.053198 118.422440 182 182 182
-12.778210 -30.051135 118.253758 182 182 182
-12.779986 -30.047008 117.916244 181 181 181
-12.949416 -31.329627 117.765022 181 181 181
-12.950323 -31.327764 117.597298 181 181 181
-12.951230 -31.325900 117.429524 181 181 181
-12.952138 -31.324035 117.261701 181 181 181
-13.119479 -32.591026 117.115784 181 181 181
-12.954862 -31.318438 116.757937 181 181 181
-13.039285 -31.953356 116.602654 181 181 181
-13.040203 -31.951588 116.435160 182 182 182
-13.124112 -32.582678 116.281415 185 185 185
-13.125040 -32.581007 116.114395 187 187 187
-13.126896 -32.577663 115.780209 190 190 190
-13.044797 -31.942740 115.596954 191 191 191
-13.045717 -31.940969 115.429166 192 192 192
-12.963050 -31.301619 115.243980 191 191 191
-12.963961 -31.299747 115.075515 190 190 188
-13.131540 -32.569295 114.943890 193 192 190
-13.133399 -32.565945 114.609021 191 190 188
-13.126072 -31.195367 114.399023 183 182 177
-13.526460 -31.639565 114.246720 180 179 174
-14.004725 -32.713379 114.116365 179 179 171
-14.243365 -33.243163 113.801402 178 178 170
-14.559318 -33.053687 113.629743 177 177 169
